ply
format ascii 1.0
element vertex 599
property float x
property float y
property float z
property float nx
property float ny
property float nz
property uchar red
property uchar green
property uchar blue
end_header
0.69538689 0.46643937 0.63301229 -0.91433227 -0.35491270 0.19502188 10 82 152
0.31210196 0.75195599 0.79947329 -0.48873928 -0.87204558 -0.02589506 65 16 124
-0.16264284 0.69140863 -0.15711522 0.11035892 -0.50962776 0.85328805 141 62 236
-0.51190495 -0.06898046 0.02779913 0.38583270 0.20841300 0.89871979 176 154 242
0.23078609 -0.59466302 0.97517788 -0.44598666 0.87046009 -0.20831499 70 238 100
-0.10407221 0.49113333 0.54688835 0.11884711 -0.79785162 0.59102297 142 25 202
0.65358412 0.84790301 -0.48699510 -0.48250204 -0.43170992 0.76211435 65 72 224
-0.34485054 0.10847950 0.10990679 0.38920823 0.01930849 0.92094743 177 129 244
0.70549953 -0.46136141 0.65936863 -0.79293329 0.59853816 0.11405683 26 203 142
0.68817198 0.65357804 0.43170774 -0.71955919 -0.59393507 0.35982746 35 51 173
-0.28954875 -0.79022384 -0.68167520 0.15529782 0.51422781 0.84347641 147 193 235
0.75962353 0.79181278 0.05151725 -0.62226206 -0.55306405 0.55399472 48 56 198
0.31895912 0.96396136 -0.67250156 -0.19539288 -0.50123852 0.84296006 102 63 234
0.89722455 -0.70781600 -0.82830691 -0.46035624 0.40552497 0.78969717 68 179 228
0.98688102 0.42266619 -0.64768422 -0.56214201 -0.16988900 0.80940354 55 105 230
-0.26286423 -0.48718584 -0.20119369 0.10028754 0.51892388 0.84891725 140 193 235
0.58874881 -0.26476181 -0.46190655 -0.44348180 0.27796602 0.85209090 70 162 236
0.66402471 -0.97251558 0.73073030 -0.54399949 0.83902735 0.00988250 58 234 128
0.14962912 0.32032192 0.46577215 -0.51118064 -0.48264903 0.71115702 62 65 218
-0.00704455 -0.18306279 -0.72361112 -0.04305325 0.20587088 0.97763163 122 153 252
-0.19446063 0.97722554 -0.01060736 0.10819580 -0.74869508 0.65402550 141 32 210
-0.88709462 -0.86876547 -0.96289766 0.39299369 0.44806373 0.80299121 177 184 229
-0.12181675 -0.65346622 -0.83941579 -0.01401573 0.44809023 0.89387846 125 184 241
-0.48938894 -0.78769016 -0.53804064 0.22839740 0.57403874 0.78632957 156 200 227
-0.89666593 0.73581624 0.05611289 0.68486762 -0.51259065 0.51788723 214 62 193
-0.44220281 0.80904639 -0.07303417 0.36640784 -0.61463445 0.69854838 174 49 216
0.17986608 0.51108503 -0.02732193 -0.21366037 -0.52203101 0.82573169 100 60 232
0.63653040 -0.74199665 -0.91756487 -0.33674976 0.39116454 0.85649866 84 177 236
-0.31562948 -0.36707294 -0.61408508 0.12908706 0.34742856 0.92877877 143 171 245
-0.83554935 -0.93915498 -0.79844213 0.35519186 0.53970391 0.76325524 172 196 224
-0.07932925 0.11004162 0.67155671 -0.50620747 0.36858091 0.77968079 62 174 226
0.97491455 0.33345413 0.13216650 -0.85748613 -0.15432236 0.49081787 18 107 190
-0.77848172 0.78153300 -0.51463771 0.43149018 -0.40762877 0.80477023 182 75 230
-0.74083614 -0.55274522 -0.54310930 0.42430186 0.42967027 0.79708940 181 182 229
-0.04200602 0.27445483 -0.20120049 0.04510076 -0.23918587 0.96992582 133 97 251
0.04972672 -0.43372762 -0.94034219 -0.03590249 0.25651935 0.96587211 122 160 250
-0.81791437 -0.82632792 -0.70523274 0.43004304 0.44784626 0.78389841 182 184 227
0.41817248 0.01616693 -0.34564340 -0.36308688 -0.00256238 0.93175179 81 127 246
0.48920918 0.77500367 -0.14541996 -0.37574190 -0.57819957 0.72422606 79 53 219
0.30491889 0.58327901 0.02929044 -0.30826053 -0.56133491 0.76803553 88 55 225
-0.25877488 -0.57778239 0.82562435 0.38256934 0.92336267 0.03228119 176 245 131
0.09025204 -0.36364269 -0.94245219 -0.05668513 0.19797219 0.97856724 120 152 252
0.85919511 -0.13014567 0.07184994 -0.73162413 0.12776226 0.66962898 34 143 212
-0.98546112 0.79453194 -0.30982411 0.59809375 -0.46508446 0.65267164 203 68 210
0.44896662 -0.67601705 -0.64187133 -0.28487366 0.43801373 0.85263771 91 183 236
-0.60878289 -0.75712597 0.39546704 0.56349826 0.73507357 0.37701005 199 221 175
0.62782574 0.74346030 0.06169450 -0.54039752 -0.60486448 0.58490127 58 50 202
0.49515426 -0.62901187 0.37855124 -0.53708380 0.73277724 0.41782594 59 220 180
-0.37387991 -0.20146489 -0.88370645 0.21223114 0.15224582 0.96528709 154 146 250
-0.12591267 -0.73847067 -0.22203135 0.08862799 0.61984676 0.77970195 138 206 226
0.96710813 0.60565460 0.74115467 -0.86841089 -0.49539167 0.02120613 16 64 130
-0.44662678 -0.48015380 0.75647640 0.63164800 0.76537216 0.12339458 208 225 143
-0.18281889 -0.31405926 -0.79985881 0.06654090 0.27656344 0.95868921 135 162 249
-0.28994608 -0.50364578 -0.66817641 0.12062112 0.40557092 0.90606999 142 179 243
0.92474949 -0.10463321 0.52145374 -0.94622368 0.22600666 0.23147722 6 156 157
0.37195611 -0.85255182 0.06919432 -0.37613127 0.76358855 0.52484089 79 224 194
-0.27021694 0.89521301 -0.73340440 0.10747237 -0.42960736 0.89659756 141 72 241
0.66170585 0.22332120 -0.06154895 -0.63335150 -0.07185274 0.77052134 46 118 225
0.47020340 0.11647165 0.59261274 -0.93689728 0.03905885 0.34741604 8 132 171
-0.44878638 -0.91650367 0.03273654 0.25042218 0.78030461 0.57307369 159 226 200
0.79659843 -0.85924804 -0.93046284 -0.41312957 0.45002189 0.79170972 74 184 228
-0.66163468 0.84302795 0.67636979 0.61497754 -0.77674323 0.13591404 205 28 144
0.96445513 -0.96002889 0.09021282 -0.61167580 0.64989012 0.45110479 49 210 185
0.89775765 -0.61608326 -0.52626729 -0.53417027 0.40062052 0.74442285 59 178 222
-0.96172869 0.86804163 -0.51775432 0.47726211 -0.40687898 0.77889055 188 75 226
-0.92074096 0.16214228 -0.15882301 0.64930117 -0.01640080 0.76035452 210 125 224
0.38955700 -0.09171975 0.59843445 -0.75088173 0.43697509 0.49520648 31 183 190
0.75904286 -0.66844356 -0.89149857 -0.39691111 0.39394373 0.82901746 76 177 233
-0.05571425 -0.53042626 0.65011513 0.02218466 0.96125907 0.27475250 130 250 162
0.23287845 -0.27949154 0.86959004 -0.52183819 0.84640831 -0.10619736 60 235 113
0.29915464 -0.49961913 -0.90939832 -0.16884018 0.34219891 0.92433381 105 171 245
0.47505021 -0.38108230 -0.99674201 -0.32017711 0.26250193 0.91026336 86 160 243
0.40161383 0.86613429 -0.59297025 -0.33485410 -0.43889835 0.83381110 84 71 233
0.67143297 0.59671819 0.88944983 -0.86958778 -0.48225391 -0.10605759 16 66 113
-0.10347044 0.91545987 -0.63393199 -0.01242496 -0.47947216 0.87746918 125 66 239
-0.96945322 -0.13825083 -0.61015427 0.50258303 0.17183156 0.84728050 191 149 235
-0.43199539 -0.16843939 -0.30597782 0.33183950 0.20911177 0.91986680 169 154 244
0.55666983 0.32110012 -0.29877985 -0.86180073 -0.36911076 0.34793216 17 80 171
0.03938091 0.35038042 0.47513878 -0.19997203 -0.52086377 -0.82988685 102 61 21
-0.26186681 0.69663930 0.01532710 0.23728319 -0.96568823 -0.10556072 157 4 114
0.25553071 -0.92080307 -0.09361041 -0.33567649 0.94078434 0.04739340 84 247 133
0.39374316 -0.67238665 -0.87811244 -0.39570281 0.58250636 0.71000403 77 201 218
0.48142421 -0.88524318 -0.31794727 -0.53745341 0.81173879 0.22852580 58 230 156
0.17437780 -0.28399897 0.29736614 -0.46622995 0.65631974 -0.59318978 68 211 51
-0.52614021 -0.28594124 -0.33655536 0.71160799 0.45714414 0.53351045 218 185 195
-0.85277247 -0.46851826 -0.53323865 0.73278356 0.46452275 0.49723935 220 186 190
-0.68264401 0.59529793 -0.92089093 0.04661329 -0.40326032 0.91389734 133 76 244
-0.03035712 0.85357785 0.96260846 -0.40998954 -0.59171665 -0.69410378 75 52 39
0.92167008 0.00362670 -0.44292283 -0.89852273 0.10450507 0.42630470 12 140 181
-0.12895417 -0.33468544 -0.20878828 0.14397277 0.90099567 0.40924162 145 242 179
-0.66096449 -0.38702774 0.90599012 0.50132865 0.41013408 -0.76187909 191 179 30
0.90439272 -0.72924435 0.68279743 -0.78241807 0.52198559 -0.33963662 27 194 84
0.62116432 -0.60442221 0.06899643 -0.70303285 0.71104807 0.01246950 37 218 129
0.69754815 -0.54190791 -0.79044163 -0.54886335 0.50211328 0.66830492 57 191 212
-0.93889093 0.41535342 -0.42459214 0.77885580 -0.29548895 0.55323589 226 89 198
0.57778621 0.98136210 0.52825999 -0.65711528 -0.67548645 -0.33454096 43 41 84
0.49635530 -0.92875588 -0.30802035 -0.52526647 0.79241121 0.31012848 60 228 167
-0.80759716 0.27576375 0.93018997 0.59742814 -0.13141371 -0.79108167 203 110 26
-0.78543568 -0.29371548 -0.58970499 0.68324661 0.41955832 0.59761596 214 180 203
0.26308954 0.48284566 0.55643964 -0.49454185 -0.45398405 -0.74116588 64 69 33
0.24129987 0.21540356 -0.69332182 -0.38794133 -0.07628275 0.91852188 78 117 244
0.47628820 -0.82960987 -0.82019329 -0.41278648 0.68308145 0.60250074 74 214 204
-0.25021744 0.57465506 -0.99835849 0.14801483 -0.36806828 0.91794193 146 80 244
-0.51336205 -0.47654319 -0.27589619 0.50195962 0.77334499 0.38726497 191 226 176
-0.78030968 -0.36967099 -0.59506702 0.66192460 0.47257808 0.58182967 211 187 201
0.76906228 -0.71498108 -0.34887505 -0.65973508 0.69519633 0.28539750 43 216 163
0.93516290 0.33476233 0.00821078 -0.98778903 -0.15191808 0.03455085 1 108 131
-0.31808424 -0.63905478 0.78623807 0.16685720 0.70289761 -0.69144315 148 217 39
-0.35257709 0.01280785 0.01066160 0.69569206 0.71569335 0.06160858 216 218 135
0.73419344 -0.57430696 -0.45717275 -0.74138051 0.55933344 0.37081128 32 198 174
-0.44721806 -0.18561172 0.59954453 0.37691909 0.46468946 -0.80124635 175 186 25
0.91295826 0.07318366 0.34553874 -0.96724671 0.06490216 -0.24540089 4 135 96
-0.51112735 -0.87019610 0.46101785 0.25749341 0.90078759 -0.34968409 160 242 82
0.76985550 -0.84876716 -0.85992408 -0.58699143 0.58782905 0.55668491 52 202 198
-0.23470688 -0.49309564 0.66182041 0.19710974 0.71591914 -0.66978168 152 218 42
-0.02260339 0.66545928 0.87455225 -0.05473044 -0.53474879 -0.84323686 120 59 19
-0.32345605 -0.78751266 -0.60751033 0.23610875 0.79097712 0.56445372 157 228 199
0.50929272 0.69704437 -0.25219333 -0.77485955 -0.54803061 0.31504804 28 57 167
-0.78766191 -0.86333299 -0.77080619 0.28946713 0.74496883 0.60102439 164 222 204
-0.84755731 0.20216739 -0.99344254 0.32078177 -0.04219433 0.94621283 168 122 248
-0.58681369 0.62264335 0.41840947 0.33865216 -0.76748139 -0.54432243 170 29 58
-0.56587803 -0.95136881 0.67439640 0.08509559 0.86693984 -0.49109486 138 238 64
0.61949050 -0.65828073 -0.92327583 -0.58814418 0.53101212 0.61001027 52 195 205
0.55125999 -0.03158319 0.84512794 -0.71588111 0.15550788 -0.68068469 36 147 40
0.25595224 -0.96364999 0.98483753 -0.42274126 0.70966911 -0.56361306 73 217 55
0.72114694 -0.84502840 0.60248590 -0.72131795 0.61793721 -0.31281644 35 206 87
-0.82493341 -0.70076025 -0.79198849 0.31343207 0.65524989 0.68731940 167 211 215
-0.68512845 0.05477715 0.67569542 0.42279339 0.13030070 -0.89680964 181 144 13
-0.78044844 0.80572498 -0.28708816 0.44557711 -0.78012073 0.43917280 184 28 183
-0.60358644 -0.55393636 0.84399498 0.10733054 0.66917956 -0.73530871 141 212 33
-0.52251232 -0.68574739 -0.78030467 0.02892036 0.68443501 0.72850007 131 214 220
-0.65323627 0.88625944 -0.54854238 0.20364791 -0.74173778 0.63902473 153 32 208
0.81995749 -0.13688481 0.65866029 -0.87085319 0.22363274 -0.43772495 16 156 71
0.26177442 -0.06850505 -0.76591361 -0.58707094 0.19370149 0.78601998 52 152 227
-0.76712406 -0.15313959 -0.02280259 0.84553051 0.49593407 0.19780710 235 190 152
0.38238549 0.38278866 0.20019257 -0.93347430 -0.32972655 -0.14108945 8 85 109
-0.41716635 -0.89999986 0.16433966 0.13738093 0.98775077 -0.07399322 145 253 118
-0.25929856 0.89960682 0.23044646 -0.20729195 -0.95690477 -0.20337985 101 5 101
-0.50749326 0.30343080 -0.78955305 0.31984830 -0.17685401 0.93081671 168 104 246
0.81408548 -0.79727650 0.21455240 -0.77461946 0.62917531 -0.06405636 28 207 119
0.25295675 0.43300664 0.45618558 -0.39464736 -0.44074595 -0.80622357 77 71 24
0.63179028 -0.61090457 -0.50962329 -0.65413630 0.67329139 0.34465125 44 213 171
0.03435981 -0.52366447 -0.54536927 -0.74402082 0.47950798 0.46530116 32 188 186
-0.66336715 -0.54752159 -0.86072898 -0.02187693 0.57539380 0.81758386 124 200 231
0.89782274 0.16208255 -0.08173144 -0.99323452 -0.01354093 0.11533359 0 125 142
-0.22295797 0.56509697 0.09801590 -0.77427208 -0.63276994 -0.01024564 28 46 126
0.34823489 0.35160685 -0.79057217 -0.76480418 -0.14942615 0.62669486 29 108 207
0.35509205 -0.00058424 -0.32851481 -0.92546916 0.12144189 0.35882983 9 142 173
0.58354294 0.23295522 -0.29055154 -0.96078455 -0.06736968 0.26898783 4 118 161
0.17559206 -0.52020979 -0.33648205 -0.75066179 0.55779004 0.35408634 31 198 172
0.23510873 -0.92004299 -0.89613056 -0.54373419 0.61115056 0.57519400 58 205 200
0.99414146 -0.40831268 -0.82240534 -0.84703147 0.27158442 0.45692408 19 162 185
0.48495996 0.90231717 0.21083462 -0.83413887 -0.54485315 -0.08571751 21 58 116
0.90051579 0.63519430 0.90575171 -0.85321546 -0.27032369 -0.44603655 18 93 70
-0.14733517 0.38791370 0.26651978 -0.84697795 -0.42433339 -0.32026485 19 73 86
-0.32306480 0.15880120 0.46958351 -0.62850642 -0.03968198 -0.77679157 47 122 28
0.16512358 0.13623536 -0.18619061 -0.94174403 0.00468287 0.33629796 7 128 170
-0.42918754 0.61968541 -0.61133528 -0.15062435 -0.55302966 0.81943303 108 56 231
0.26575315 -0.84246516 0.21535563 -0.63981986 0.76148862 -0.10375760 45 224 114
-0.01919484 0.96021354 0.78693116 -0.45707780 -0.67265648 -0.58190477 69 41 53
0.00183952 0.23383236 0.96661198 -0.52915055 -0.08964524 -0.84377927 60 116 19
-0.89864385 -0.36148679 0.23591053 0.59634668 0.76877725 -0.23098098 203 225 98
0.45993352 -0.40880620 0.40252757 -0.84115672 0.47351146 -0.26123235 20 187 94
0.84226429 -0.41096890 -0.66741812 -0.82557619 0.32942206 0.45815402 22 169 185
-0.00765514 -0.88279140 0.00307047 -0.47610641 0.87871128 0.03448562 66 239 131
0.59768999 0.50450420 -0.03447068 -0.95580441 -0.28394535 0.07624286 5 91 137
-0.37031770 0.03526640 -0.91146612 -0.25050038 0.12014045 0.96063304 95 142 249
0.96653986 -0.44239056 -0.31955504 -0.92039776 0.32967487 0.21019644 10 169 154
0.34288263 -0.71817327 0.99515390 -0.63188583 0.52674854 -0.56855637 46 194 55
-0.33005106 -0.97656167 -0.81434190 -0.27867785 0.76304078 0.58318734 91 224 201
-0.98178959 -0.44552302 -0.26446593 0.35858092 0.83132106 0.42464706 173 233 181
-0.30112517 0.54883957 0.34948421 -0.61410594 -0.62013519 -0.48816630 49 48 65
0.32874441 -0.16526079 0.10456681 -0.94745338 0.31823790 -0.03250861 6 168 123
0.74142504 -0.02308428 -0.76439571 -0.86280167 0.09699821 0.49614981 17 139 190
0.77087128 -0.68620586 0.14931512 -0.86579001 0.49810341 -0.04796524 17 191 121
-0.41979194 -0.76502347 -0.14823687 -0.21427664 0.94895017 0.23147166 100 248 157
-0.70745945 -0.30279756 -0.37001836 -0.36670631 0.67969573 0.63524812 80 214 208
0.09624588 0.99571478 -0.38091516 -0.75291371 -0.58509904 0.30129731 31 52 165
0.74536228 -0.94250882 0.54506624 -0.78124398 0.56948191 -0.25563300 27 200 94
0.60634255 0.31054676 -0.06525731 -0.98971027 -0.11301705 0.08775430 1 113 138
0.64608681 -0.57208633 -0.72568953 -0.81760281 0.38731849 0.42603999 23 176 181
0.79920101 0.36663389 -0.45472932 -0.94198745 -0.13071176 0.30915058 7 110 166
-0.35999334 -0.45040059 0.44825852 -0.49864852 0.73069602 -0.46629718 63 220 68
0.89997768 0.27870083 -0.82800710 -0.91466892 -0.06064840 0.39962807 10 119 178
0.26776385 -0.33883131 -0.16513336 -0.89423722 0.41407916 0.16993615 13 180 149
-0.29219854 -0.80869043 0.90194774 -0.40059090 0.68691015 -0.60636735 76 215 50
0.86011708 0.45363152 0.07138371 -0.98583227 -0.16773354 0.00042648 1 106 127
0.25277543 0.17887902 -0.91540182 -0.79969174 -0.01498251 0.60022384 25 125 204
0.84674418 0.47601998 -0.69064176 -0.91809267 -0.16244353 0.36154953 10 106 173
0.36762798 0.44149160 -0.56435597 -0.90464091 -0.19468147 0.37910944 12 102 175
-0.55825830 -0.28979516 -0.20861936 -0.53193289 0.68441600 0.49862021 59 214 191
0.78281212 0.49340415 -0.35235178 -0.94811565 -0.20126694 0.24610633 6 101 158
-0.35849679 0.86295748 -0.68928778 -0.46001419 -0.59295678 0.66090035 68 51 211
-0.91618955 0.28255522 -0.79940414 -0.00330600 -0.15557979 0.98781782 127 107 253
0.12652135 0.90597689 0.15607035 -0.79903001 -0.60011798 -0.03754327 25 50 122
0.24285018 0.89481270 -0.66792011 -0.75026089 -0.46666858 0.46832585 31 67 187
0.58449841 0.06138861 0.03323090 -0.99686688 0.05569666 0.05616291 0 134 134
-0.14327300 -0.74353254 0.91270494 -0.48356724 0.63805205 -0.59920979 65 208 51
-0.72601902 -0.72640812 0.06289113 -0.11589798 0.99211705 0.04765974 112 253 133
0.13904583 0.97293925 0.06536222 -0.74004430 -0.67197901 0.02790569 33 41 131
0.06890702 -0.24542618 -0.47876942 -0.76845878 0.34605211 0.53825569 29 171 196
0.20167863 0.78895259 -0.75423706 -0.30444813 -0.75296897 0.58339453 88 31 201
-0.16820335 0.91341841 -0.56184697 0.11874335 -0.82011843 0.55973721 142 22 198
0.56253397 -0.19280231 0.15498328 -0.92415977 0.35472715 -0.14176534 9 172 109
-0.60744810 -0.56073797 0.03254569 0.67189378 0.73725379 -0.07082113 213 221 118
0.87679243 -0.89363766 -0.12601840 -0.72103506 0.69249016 0.02378769 35 215 130
-0.12829971 -0.95979977 -0.90764558 0.00495951 0.78406805 0.62065506 128 227 206
0.51078117 -0.88299286 0.63099444 -0.44465676 0.66982359 -0.59465683 70 212 51
0.67279720 0.76268196 -0.35485268 -0.72688788 -0.67582101 0.12206568 34 41 143
0.62158108 -0.85246491 0.58943272 -0.53702617 0.61492479 -0.57746899 59 205 53
0.40482223 0.00038600 -0.21823597 -0.99524271 0.00562784 -0.09726409 0 128 115
0.13963735 0.20600390 -0.53295636 -0.55171996 -0.37342206 0.74576217 57 79 222
-0.89765573 -0.35135603 0.19039345 0.81673175 0.39564067 -0.42002112 231 177 73
0.93767798 0.72092211 0.78158331 -0.65476930 -0.44051781 -0.61418343 44 71 49
0.56789291 0.53714156 0.44802785 -0.62249649 -0.46111289 -0.63235515 48 68 46
-0.18140411 0.32038438 0.20318735 0.13326152 -0.53687620 -0.83306986 144 59 21
-0.63410425 -0.82876265 -0.59074616 0.48729753 0.81071496 0.32447267 189 230 168
-0.89657509 0.54572678 0.91517234 0.55840826 -0.32586467 -0.76288432 198 85 30
-0.04405355 -0.69000459 -0.86137831 -0.03082824 0.79103118 0.61099857 123 228 205
-0.57540274 0.17190695 -0.45347512 0.91184592 -0.17580368 0.37098548 243 105 174
0.09579957 0.21222234 0.23142302 -0.18034635 -0.24881160 -0.95161337 104 95 6
-0.17632711 -0.00944281 -0.82375228 0.31727940 0.14550880 0.93710250 167 146 246
0.36926460 -0.92450190 0.05992687 -0.32456946 0.88905627 -0.32285246 86 240 86
-0.22862554 0.64516866 0.72731495 0.14821340 -0.47136262 -0.86939639 146 67 16
-0.33051670 0.09925878 -0.76017082 0.63633358 -0.13079897 0.76024419 208 110 224
-0.89763880 -0.99235094 -0.44703317 0.64255035 0.76605839 0.01684296 209 225 129
0.55011022 0.48508608 -0.45854318 -0.79278117 -0.60545450 0.07016297 26 50 136
-0.47452366 -0.80797660 0.00769544 0.40694100 0.86188585 -0.30257550 179 237 88
0.18148518 0.08886564 -0.51007628 -0.90544266 -0.29998088 0.30030826 12 89 165
0.01003158 -0.41441536 -0.72585642 -0.14975989 0.76131243 0.63085294 108 224 207
-0.89471769 -0.94108772 0.41621780 0.56448388 0.62459481 -0.53966594 199 207 58
0.86394560 0.69675660 0.49668670 -0.63079381 -0.46020448 -0.62474889 47 68 47
-0.93705010 0.23535240 0.55232477 0.69274855 -0.13813482 -0.70782644 215 109 37
-0.61908507 0.16040754 0.59754717 0.52516627 -0.08461288 -0.84678280 194 116 19
0.72420645 -0.38568890 -0.10329938 -0.82790649 0.47939691 -0.29111773 21 188 90
-0.71282697 -0.88332653 0.59359241 0.44262269 0.66011429 -0.60690552 183 211 50
0.23954129 -0.66441381 -0.23129654 -0.38590649 0.91679370 -0.10278887 78 244 114
-0.80692530 -0.70347631 0.70078158 0.48846459 0.50257790 -0.71331459 189 191 36
0.69593346 0.33738291 -0.22438252 -0.94815207 -0.31761977 0.01119269 6 87 128
0.83634341 -0.91682315 -0.61778367 -0.67534781 0.69607490 0.24369073 41 216 158
-0.73123407 0.91596639 -0.50739050 0.58946025 -0.79020798 0.16765432 202 26 148
0.46795750 -0.44789350 0.49386811 -0.48620480 0.50446081 -0.71352947 65 191 36
0.14991522 0.08658123 -0.01462185 -0.60638845 -0.12890691 -0.78465039 50 111 27
0.09649527 -0.66193581 0.91531932 -0.13916327 0.48496601 -0.86338955 109 189 17
-0.01214015 -0.84294689 0.52966022 -0.05838226 0.69891018 -0.71282262 120 216 36
0.96654451 -0.29591334 0.42136908 -0.78127003 0.22671598 -0.58156431 27 156 53
-0.48001039 -0.69578874 0.25481522 0.37940148 0.68522632 -0.62170696 175 214 48
0.32611060 -0.16439116 -0.35630965 -0.88253766 0.45973474 0.09884971 14 186 140
0.26660264 -0.86195111 0.34969413 -0.26563594 0.78199434 -0.56384611 93 227 55
-0.37512660 -0.22922266 0.79870498 0.27145308 0.23330761 -0.93374556 162 157 8
0.04151058 -0.26722348 0.30507839 -0.13216382 0.32907334 -0.93500990 110 169 8
-0.97354376 0.59345841 -0.05497086 0.78851849 -0.52244532 -0.32448345 228 60 86
0.37533188 -0.80876386 -0.51065397 -0.43870440 0.83143431 0.34096256 71 233 170
0.79598808 0.90467966 0.28499687 -0.68068564 -0.65222073 -0.33357954 40 44 84
0.20278859 -0.13119519 0.16397524 -0.95082992 0.23025604 -0.20713447 6 156 101
0.58691823 0.38235903 0.52965999 -0.92214620 -0.13319646 -0.36318740 9 110 81
0.43254066 -0.31648433 -0.12907314 -0.94851291 0.31465805 0.03624313 6 167 132
0.17404974 -0.26980364 -0.95921767 -0.68296701 0.32312480 0.65509272 40 168 211
-0.00288057 -0.97048557 0.23120308 -0.63112539 0.74123490 -0.22858635 47 222 98
-0.85371840 0.68325341 -0.18487668 -0.10758644 -0.98489022 0.13570733 113 1 144
0.85681546 0.48896861 -0.62376738 -0.94482195 -0.18157101 0.27265996 7 104 162
-0.91352642 -0.38286996 -0.24976444 0.10517744 0.96089351 0.25616670 140 250 160
-0.07641351 -0.41808867 0.63743794 -0.50763673 0.51168793 -0.69316697 62 192 39
0.03213394 -0.82590938 0.15372252 -0.60100704 0.76997316 -0.21431717 50 225 100
0.73131633 -0.28250360 -0.69272387 -0.91719449 0.23600076 0.32102653 10 157 168
-0.31808269 -0.15158355 0.80890727 -0.52257621 0.25682133 -0.81299263 60 160 23
0.19487739 0.33195329 0.60497797 -0.80010563 -0.15236394 -0.58018637 25 108 53
-0.32793403 -0.75110972 0.88165081 -0.29861104 0.63208222 -0.71505493 89 208 36
-0.42677402 0.19635057 0.23341119 0.70190519 -0.19246556 -0.68577415 216 102 40
0.01968050 -0.63586676 0.78728211 -0.04974110 0.61423045 -0.78755754 121 205 27
0.82808042 0.67984164 -0.59439945 -0.72370285 -0.43093491 0.53902626 35 72 196
-0.83609414 -0.30130601 0.26966619 0.83300114 0.48445213 -0.26723650 233 189 93
-0.52763140 0.63711882 -0.71929085 0.49929866 -0.47215074 0.72648090 191 67 220
0.07022595 0.72569847 0.08198869 -0.16424790 -0.90922570 -0.38253278 106 11 78
0.14207208 0.15051341 0.56373656 -0.19412063 -0.04984115 -0.97971070 102 121 2
0.86481762 0.09462047 -0.22876596 -0.99983972 0.01519738 -0.00946721 0 129 126
-0.14933097 -0.54545546 0.88541925 0.07604926 0.49511641 -0.86549193 137 190 17
0.93504608 -0.13560200 -0.86650419 -0.83056051 0.19820039 0.52046704 21 152 193
-0.17541480 0.71819961 0.12633407 0.24240103 -0.84236658 -0.48131099 158 20 66
-0.66595984 0.28960836 -0.49376953 0.81603277 -0.26993909 0.51110029 231 93 192
-0.54659116 -0.66417146 0.30999076 0.06152133 0.88001031 -0.47095335 135 239 67
0.62512159 0.69310987 -0.14724708 -0.82096976 -0.57016778 0.03028890 22 54 131
-0.16232038 0.02093732 -0.79685295 -0.05301737 0.17160492 0.98373824 120 149 252
0.35792184 -0.57274127 0.98547101 -0.28925130 0.57162076 -0.76784337 90 200 29
-0.05083108 -0.89303148 -0.92670465 0.03487927 0.75837642 0.65088302 131 224 210
-0.23684716 -0.70531976 0.51529944 0.21562757 0.75720847 -0.61655504 154 224 48
-0.26339114 0.48415530 0.04733813 0.43702397 -0.86684549 -0.23997700 183 16 96
-0.40863764 0.76303041 -0.68666172 0.33806920 -0.70395243 0.62462807 170 37 207
-0.26987672 0.05403292 -0.54098237 0.39812389 0.08969367 0.91293615 178 138 243
0.44897592 -0.54274654 0.20904422 -0.86208761 0.45426849 -0.22459991 17 185 98
-0.12824380 0.88317752 0.83334482 -0.52036601 -0.52856672 -0.67069852 61 60 41
0.30381036 0.18383646 0.39257622 -0.61891353 -0.18977827 -0.76218784 48 103 30
-0.14587522 -0.11706436 -0.68899703 0.06478271 0.24669203 0.96692622 135 158 250
-0.61462986 0.50050926 0.52342582 0.53857940 -0.48750180 -0.68722218 196 65 39
-0.85298765 0.12481236 0.38939869 0.69489145 -0.10713337 -0.71108955 216 113 36
0.29113948 0.02370799 -0.29702866 -0.99984229 -0.01717791 0.00451813 0 125 128
-0.97852778 0.16291320 -0.21503365 0.98062354 -0.17870602 -0.08025984 252 104 117
-0.17885232 0.56252372 -0.38883162 0.08630835 -0.98067325 0.17558707 138 2 149
0.05025196 0.36071014 -0.84679472 -0.21322805 -0.45613340 0.86398858 100 69 237
-0.06000137 0.23880720 -0.00303578 -0.18292914 -0.80202806 -0.56858414 104 25 55
-0.81953502 0.31281734 0.24805057 0.86071140 -0.26924098 -0.43207088 237 93 72
-0.05505407 -0.99979579 -0.88107312 -0.48393500 0.72591645 0.48872507 65 220 189
0.65310013 0.36940622 -0.87927032 -0.89317131 -0.13585389 0.42870590 13 110 182
0.81960475 0.56563425 0.17064023 -0.96238369 -0.23345806 -0.13897851 4 97 109
-0.72735083 0.09239018 -0.47868621 -0.56429964 0.07820150 0.82185793 55 137 232
0.49146664 0.11773133 -0.84508121 -0.88760263 0.01351838 0.46041161 14 129 186
0.88590550 0.26953220 -0.29525840 -0.98818040 -0.07159584 0.13554944 1 118 144
0.32630086 0.11312580 0.33845747 -0.95048052 0.01286040 -0.31051800 6 129 87
-0.38154626 0.95732915 0.06797528 -0.59440207 -0.79732728 -0.10466847 51 25 114
0.23118329 -0.01003146 0.12969458 -0.98042619 0.11785432 -0.15771785 2 142 107
0.24958146 0.14843273 0.91060901 -0.31610593 -0.04151017 -0.94781536 87 122 6
-0.23160517 0.94063807 0.81955445 0.03380326 -0.66144097 -0.74923509 131 43 31
0.03485370 -0.69886887 -0.44988358 -0.26734263 0.88533336 0.38041136 93 240 176
-0.05284131 0.38031924 0.84386301 -0.20784029 -0.25886464 -0.94328767 101 94 7
0.29737747 -0.20425332 -0.80396914 -0.57612300 0.35998669 0.73382008 54 173 221
-0.47074509 0.92280972 0.48341691 0.30420810 -0.75743937 -0.57770497 166 30 53
-0.13451040 -0.83606625 -0.78501368 0.00742284 0.84100533 0.54097599 128 234 196
0.75246775 -0.22562218 -0.02083468 -0.94636810 0.30512542 0.10623547 6 166 141
0.86370921 0.56601179 -0.16711915 -0.93899369 -0.30350578 0.16178724 7 88 148
0.46785104 0.31012499 0.18840277 -0.97630310 -0.18215474 -0.11684129 3 104 112
0.48733020 -0.43951106 0.16384518 -0.91939670 0.36271358 -0.15214697 10 173 108
0.27811074 -0.81086183 0.25609612 -0.77990633 0.58789086 -0.21478011 28 202 100
0.54774070 0.31211185 -0.17622077 -0.97445256 -0.12399628 0.18726245 3 111 151
-0.67808270 0.94572508 -0.50113595 -0.25943896 -0.77833080 0.57174522 94 28 200
0.49869764 0.24556410 -0.90406978 -0.81655681 -0.06896511 0.57313067 23 118 200
-0.25862384 0.25742519 0.08319533 -0.98262173 -0.18554316 0.00532171 2 103 128
-0.79021478 -0.95064461 -0.39410472 -0.08605298 0.90453905 0.41761708 116 242 180
-0.89602017 0.67305672 -0.42382884 0.02754062 -0.73444474 0.67810941 131 33 213
0.92490947 -0.54525328 0.10220277 -0.93758065 0.34702384 -0.02273941 7 171 124
0.14175653 0.03875482 -0.62131464 -0.83917814 0.06770457 0.53962594 20 136 196
-0.18090606 -0.68748200 -0.34947681 -0.64432114 0.67881519 0.35222188 45 214 172
-0.87987769 0.96932495 -0.44380033 -0.09601560 -0.86708421 0.48882112 115 16 189
0.80029154 -0.92735672 -0.79779255 -0.79625881 0.47197267 0.37843600 25 187 175
0.01620317 0.22893178 -0.72415376 -0.78024870 -0.08448090 0.61973792 28 116 206
0.28412962 0.22809458 0.03180254 -0.99636436 -0.08337379 -0.01751653 0 116 125
0.24406612 0.99869096 -0.86985850 -0.70745629 -0.50448179 0.49497849 37 63 190
-0.44551897 -0.26128507 0.19055128 -0.77712715 0.56108201 -0.28506231 28 199 91
0.86417079 0.19246423 -0.02065897 -0.99913323 -0.03813170 0.01669547 0 122 129
-0.79073250 -0.43776643 -0.97968686 -0.11573882 0.49625471 0.86042774 112 190 237
0.78220809 0.09977305 0.64640391 -0.93326223 0.01352837 -0.35894102 8 129 81
0.13684213 0.69728673 0.19750011 -0.88184911 -0.44419178 -0.15822724 15 70 107
-0.30510926 0.68831718 -0.37107706 -0.71433395 -0.57732457 0.39550394 36 53 177
0.11732399 0.37805104 0.38310635 -0.92437422 -0.20210756 -0.32355031 9 101 86
-0.78237844 -0.61644959 -0.16027987 0.69920868 0.69230092 0.17840038 216 215 150
-0.48957109 -0.32155323 -0.60453928 0.50240058 0.49008131 0.71232998 191 189 218
-0.17991936 0.46037924 -0.12727392 0.34972760 -0.86398470 0.36224455 172 17 173
-0.34822524 -0.60218501 -0.42143810 0.29911482 0.82673991 0.47647825 165 232 188
-0.09586370 -0.74273467 -0.67012894 0.00563497 0.78988630 0.61322755 128 228 205
0.15096581 0.79178596 -0.04802465 -0.31802872 -0.94299698 0.09805374 86 7 140
0.27530456 -0.99953222 0.20590270 -0.28334710 0.94545954 -0.16068807 91 248 107
-0.48487389 0.33228278 -0.04506958 0.88641077 -0.43694979 0.15280972 240 71 146
-0.60592520 0.47980571 0.63541472 0.61320955 -0.40564853 -0.67780781 205 75 41
-0.68546820 -0.91606045 -0.19552457 0.47971100 0.84969372 0.21885623 188 235 155
0.51660931 0.05128908 0.48678708 -0.78629321 0.10592106 -0.60870665 27 141 49
-0.54838383 -0.15184951 -0.07493544 0.84355372 0.45123884 0.29120559 235 185 164
-0.55436468 0.26473451 -0.57966149 0.58057803 -0.16323692 0.79767346 201 106 229
-0.04883766 -0.78802037 0.81842625 -0.02110517 0.78035986 -0.62497449 124 226 47
0.66724694 0.77741277 -0.73604357 -0.57581884 -0.49994591 0.64690554 54 63 209
-0.22873080 -0.97230792 -0.99066222 0.02715923 0.72286648 0.69045377 130 219 215
0.43779290 -0.54765248 -0.04212391 -0.68060195 0.72395444 0.11256577 40 219 141
-0.68897665 -0.33917797 0.13992584 0.71297532 0.68497604 -0.14991370 218 214 108
0.41729867 -0.94729555 -0.65357959 -0.39596689 0.76663131 0.50545698 77 225 191
-0.19846129 0.02801824 0.26496577 0.19718291 0.41587272 -0.88778871 152 180 14
-0.44933629 -0.62609804 -0.98381591 0.22010811 0.56817472 0.79292494 155 199 228
0.68670130 -0.77436364 0.33742821 -0.66987681 0.69814533 -0.25270167 42 216 95
0.80653512 -0.00025213 -0.70888531 -0.81227189 0.09876747 0.57485592 23 140 200
-0.34162068 0.75411534 0.74318683 0.13803035 -0.61936736 -0.77287239 145 48 28
0.82622635 -0.86443448 -0.45217037 -0.69827211 0.67063940 0.25031745 38 213 159
-0.53953362 -0.61532509 -0.18502176 0.36546218 0.91801685 0.15389106 174 244 147
0.51713085 -0.39581096 0.02680349 -0.80746794 0.58145374 -0.09953484 24 201 114
-0.63069737 0.01530468 -0.65566134 0.62036359 0.14171034 0.77140605 206 145 225
-0.85059333 -0.75789881 0.31771433 0.57443929 0.75156587 -0.32429639 200 223 86
-0.60540378 0.52981400 -0.47740602 0.62635565 -0.56030697 0.54197294 207 56 196
-0.93878889 -0.75347710 0.53250468 0.59278327 0.67786902 -0.43485808 203 213 72
0.65315723 -0.50225139 -0.64419055 -0.69406766 0.52571559 0.49182644 39 194 190
0.82438338 0.93018627 0.00657225 -0.74852169 -0.66264027 -0.02496236 32 43 124
0.07063568 0.89598846 -0.82156026 -0.14539124 -0.68480814 0.71407229 108 40 218
-0.82759714 -0.52105868 0.92146063 0.53076863 0.47036982 -0.70500851 195 187 37
-0.90710545 -0.20684516 -0.14218497 0.92042392 0.36607471 0.13714656 244 174 144
-0.08173442 0.33401108 0.65470576 -0.27132636 -0.27784002 -0.92151344 92 92 10
0.51003253 0.82447886 -0.70805299 -0.65901202 -0.54716361 0.51605725 43 57 193
0.06897068 0.40548551 0.15611148 -0.76524937 -0.54165679 -0.34785259 29 58 83
-0.71179533 0.46149361 0.90318573 0.34129697 -0.31828269 -0.88442785 171 86 14
0.58287179 0.53932261 0.66985309 -0.70245886 -0.35061300 -0.61937237 37 82 48
0.86306953 -0.14662337 0.43640292 -0.93794811 0.19814546 -0.28459063 7 152 91
0.41322052 -0.77542043 -0.70852888 -0.58523178 0.62360626 0.51828474 52 207 193
0.29931724 0.93697274 -0.55735672 -0.57464284 -0.66212147 0.48102060 54 43 188
0.88756835 -0.94661069 -0.56659877 -0.72711390 0.59289598 0.34609216 34 203 171
-0.98678350 0.00846875 -0.89262962 0.48100057 0.10577594 0.87031603 188 140 238
0.15639091 -0.42832172 -0.99212646 -0.45101327 0.41121402 0.79214275 69 179 228
0.78141522 -0.94779623 -0.94899559 -0.64051688 0.56344688 0.52179092 45 199 194
0.21967041 -0.45880556 -0.21941900 -0.71911156 0.63677883 0.27819297 35 208 162
-0.34674835 -0.27423322 -0.15252197 -0.21404633 0.89438415 0.39276105 100 241 177
0.25965917 -0.96919715 0.42917991 -0.50022858 0.80731732 -0.31306568 63 230 87
0.38463008 -0.16121376 -0.52446222 -0.78869134 0.29101777 0.54154837 26 164 196
0.81592011 -0.42415726 -0.65424168 -0.81500930 0.36781785 0.44773871 23 174 184
-0.11781442 -0.45554340 0.23527968 -0.39247602 0.85725242 -0.33328804 77 236 85
0.06606054 -0.64239979 -0.56681716 -0.42273220 0.72337633 0.54591590 73 219 197
0.49763238 0.72068024 0.26248431 -0.79810351 -0.56135762 -0.21888010 25 55 99
-0.94185436 -0.30901575 -0.97436869 0.49285063 0.35725924 0.79338777 190 173 228
-0.63196349 -0.60338497 -0.51502037 0.32004297 0.76167905 0.56339818 168 224 199
-0.14378452 -0.59146595 -0.03023207 -0.21337053 0.97666603 0.02442298 100 252 130
0.40672874 0.35973704 0.98652625 -0.55199748 -0.19879192 -0.80980283 57 102 24
-0.71169579 0.81597102 0.64744222 0.40187338 -0.68168354 -0.61139619 178 40 49
-0.33927810 -0.03515315 0.42621279 0.19980474 0.37820384 -0.90390265 152 175 12
0.60231626 -0.70841563 0.72265029 -0.62729585 0.60907960 -0.48530611 47 205 65
-0.30349708 -0.75810802 0.06859982 -0.05368752 0.99855542 -0.00217594 120 254 127
-0.15171444 0.50923276 0.48870552 0.23170806 -0.69722652 -0.67837054 157 38 41
0.52142203 0.37210047 -0.65666449 -0.57375264 -0.24005644 0.78305864 54 96 227
-0.65127552 0.72018063 0.62339246 0.61179054 -0.60289848 -0.51207989 205 50 62
0.41667604 -0.10132813 0.61734843 -0.65716237 0.31646055 -0.68409818 43 167 40
0.07230759 0.86154282 0.46545005 -0.68043005 -0.66316205 -0.31181890 40 42 87
0.97992671 -0.67281818 0.27790284 -0.79241854 0.58947575 -0.15681620 26 202 107
-0.92119062 -0.40168428 0.46487951 0.81592619 0.42994767 -0.38653517 231 182 78
-0.03398359 -0.89881158 0.72920668 -0.00337205 0.81560820 -0.57859474 127 231 53
0.21201968 0.49750316 0.08659923 -0.75833923 -0.64847815 0.06631552 30 44 135
0.79113770 0.23231304 -0.15090394 -0.95438319 -0.10710280 0.27871457 5 113 163
0.79799843 -0.17620111 0.53520012 -0.92819226 0.21886556 -0.30092692 9 155 89
-0.68479943 0.92158449 0.53993368 0.26886219 -0.79403073 -0.54518664 161 26 57
0.39501143 -0.16929901 0.69785273 -0.74783206 0.25596976 -0.61255753 32 160 49
0.68046534 0.16131091 0.25734532 -0.97672862 -0.03151905 -0.21215028 2 123 100
-0.26609874 -0.39495599 0.08360386 -0.36509979 0.92339730 -0.11848886 80 245 112
-0.37232721 0.40906727 0.20512068 0.22747128 -0.90115118 -0.36903036 156 12 80
-0.27784896 -0.88845706 0.43824911 -0.06017849 0.94179994 -0.33074397 119 247 85
0.22528362 0.60013664 0.73604107 -0.65781802 -0.45306063 -0.60167396 43 69 50
-0.31755376 0.84540057 0.16356277 0.12389864 -0.98605114 -0.11114106 143 1 113
0.59566617 0.29160833 0.67110872 -0.80906266 -0.16106074 -0.56522310 24 106 55
0.97147799 0.21344328 0.85024452 -0.82446676 -0.06586299 -0.56206471 22 119 55
-0.44057727 -0.43614280 -0.65775156 0.30385742 0.56943530 0.76381546 166 200 224
-0.33832633 -0.56845319 0.74474525 0.17744130 0.72520655 -0.66527438 150 219 42
0.06635022 0.04814982 0.17030168 -0.92969894 0.30091283 -0.21239449 8 165 100
0.58243418 0.20193172 0.62562561 -0.82454956 -0.08487545 -0.55938739 22 116 56
0.48024082 -0.10634768 0.76715910 -0.63909203 0.25557581 -0.72542566 46 160 35
-0.41347980 0.27494824 -0.21940136 0.66653138 -0.31771767 0.67438221 212 86 213
-0.56948256 -0.62949765 -0.76596117 0.37417448 0.61640912 0.69284439 175 206 215
-0.94945955 -0.46908891 -0.39800179 0.73762757 0.52193737 0.42835373 221 194 182
-0.13323307 -0.69762480 -0.33000338 -0.23270625 0.92798656 0.29101324 97 245 164
0.92184293 0.16354036 -0.79183817 -0.86528563 -0.02657324 0.50057435 17 124 191
0.01502371 0.86706460 0.13581967 -0.42959592 -0.87824684 -0.21007094 72 15 100
-0.46445251 0.97342646 0.88845325 0.01060742 -0.67689705 -0.73600131 128 41 33
0.46792746 0.68035352 -0.54272425 -0.76517069 -0.48252657 0.42624167 29 65 181
0.95552039 -0.08534408 0.83157980 -0.83996534 0.13018113 -0.52679324 20 144 60
-0.58696473 0.32546294 -0.89552808 0.22867176 -0.22160001 0.94794655 156 99 248
-0.37584436 0.48778653 -0.56643784 -0.63653594 -0.45084754 0.62574643 46 70 207
0.85023189 0.06490195 0.94924152 -0.86451244 0.02950320 -0.50174481 17 131 63
-0.17474592 0.84676361 -0.61895132 -0.65469629 -0.60890168 0.44789672 44 49 184
0.90488887 -0.80446553 0.29004157 -0.87602037 0.45719147 -0.15350680 15 185 107
-0.80822313 -0.70466709 -0.29944241 -0.08105974 0.94811708 0.30741397 117 248 166
0.08125794 0.13514936 0.58059251 -0.84611100 -0.00926251 -0.53292638 19 126 59
0.91504252 -0.45093226 -0.97854447 -0.85244530 0.26938593 0.44807178 18 161 184
-0.93004620 0.59807205 0.86177349 -0.00068664 -0.46221194 -0.88676929 127 68 14
-0.06567693 0.76354516 0.25628066 -0.71571904 -0.64342976 -0.27155909 36 45 92
-0.15113926 -0.61864460 -0.31952906 -0.61043298 0.74363279 0.27273044 49 222 162
-0.90881872 0.88364792 0.31558263 0.08289960 -0.89626753 -0.43569741 138 13 71
0.06168461 -0.22455513 0.22529447 -0.89172101 0.35740313 -0.27766296 13 173 92
-0.67062116 0.60086894 -0.65410352 -0.18055151 -0.60358429 0.77658683 104 50 226
0.74418437 0.75409198 -0.99707592 -0.80690664 -0.32569745 0.49277061 24 85 190
0.84534597 0.33391309 0.10147035 -0.98903722 -0.12228368 -0.08277786 1 111 116
0.12549400 -0.32433712 0.80529249 -0.71869779 0.32960260 -0.61223829 35 169 49
-0.94460368 -0.45084965 0.19446611 0.19518614 0.92114073 -0.33675247 152 244 84
0.31477213 0.89032388 0.39937270 -0.79616922 -0.52934843 -0.29309523 25 60 90
-0.68760991 0.71764636 0.67169690 -0.14294136 -0.62261802 -0.76935983 109 48 29
0.64274013 -0.12679303 0.81306720 -0.84547931 0.14709726 -0.51334900 19 146 62
-0.21022487 -0.61747968 0.14617109 -0.58966422 0.79075080 -0.16434501 52 228 106
-0.86512554 -0.04333746 -0.61902010 0.15880606 0.25746110 0.95314980 147 160 249
-0.63736069 -0.05090606 0.86203134 -0.16964594 0.19567299 -0.96588427 105 152 4
-0.16424751 -0.88640130 -0.95326483 -0.40474060 0.66596764 0.62663555 75 212 207
-0.15958929 -0.24139750 0.04708683 -0.86207038 0.50678796 0.00082723 17 192 127
-0.81962323 -0.75696504 -0.36195385 0.06884471 0.89877111 0.43297914 136 242 182
0.11314762 -0.03790975 -0.87550080 -0.69997507 0.12155209 0.70374715 38 142 217
-0.46907020 0.18883777 0.86724401 -0.40547600 -0.06932603 -0.91147310 75 118 11
-0.35541320 -0.35583639 0.40940154 -0.59652400 0.67251396 -0.43804580 51 213 71
0.03322637 -0.63955534 -0.83368552 -0.56770712 0.52061117 0.63770896 55 193 208
0.66817582 0.22112322 0.27420473 -0.99039060 -0.06753787 -0.12068614 1 118 112
0.62099993 -0.33849514 -0.15248322 -0.93597001 0.31322935 0.16077174 8 167 147
-0.45040846 0.65044200 -0.69216120 -0.44129461 -0.54298896 0.71443832 71 58 218
0.71235418 -0.49281991 -0.61824989 -0.83318412 0.35577923 0.42335019 21 172 181
0.54231048 0.52906692 0.05259228 -0.94197744 -0.33134341 0.05375983 7 85 134
0.64108515 -0.39006484 0.77449369 -0.81110799 0.32629278 -0.48542437 24 169 65
-0.45655715 0.60194778 0.28915405 -0.31230769 -0.80854619 -0.49871534 87 24 63
0.79433763 -0.04601884 0.52079082 -0.94055051 0.10868464 -0.32179573 7 141 86
0.51424193 -0.38780284 0.03249311 -0.91717696 0.39804316 -0.01865989 10 178 125
-0.40561736 0.56085527 -0.47461700 -0.43759435 -0.59166288 0.67708665 71 52 213
-0.61537707 -0.87465572 0.65536785 -0.10664970 0.83261025 -0.54349428 113 233 58
0.62312388 -0.05831361 -0.23370659 -0.96682662 0.13497114 0.21686210 4 144 155
0.91074395 0.36902547 -0.27867424 -0.96773344 -0.14628927 0.20516200 4 108 153
-0.44502985 -0.41435814 -0.49277496 -0.30642048 0.65582591 0.68992668 88 211 215
0.36671126 0.47891748 0.32488608 -0.92449123 -0.30170652 -0.23300052 9 89 97
0.43162179 -0.24294484 0.89553046 -0.77920574 0.25050333 -0.57453156 28 159 54
0.05800509 -0.98816800 -0.59852827 -0.48523295 0.74857885 0.45186141 65 222 185
0.06687498 -0.00569284 0.60309350 -0.78641832 0.13928445 -0.60178584 27 145 50
0.34592497 0.52063990 0.24891496 -0.90907168 -0.36588854 -0.19928436 11 80 102
0.51182032 -0.01826584 0.80461633 -0.83667099 0.10282031 -0.53796822 20 140 58
0.49841380 -0.16172826 0.11767542 -0.96884900 0.24375965 -0.04373702 3 158 121
-0.19723117 0.70058835 0.25330818 -0.54774064 -0.79730362 -0.25354901 57 25 95
-0.82573879 -0.48406804 -0.09002912 0.37689131 0.89608949 0.23447101 175 241 157
0.98989940 0.21623039 0.41603911 -0.97082901 -0.05686374 -0.23293260 3 120 97
-0.30222225 0.08382893 0.32520711 -0.72206944 0.09838685 -0.68478894 35 140 40
0.27010715 -0.66698194 -0.32826674 -0.69917959 0.66087377 0.27275214 38 211 162
0.00583756 -0.15438008 0.88791049 -0.54620862 0.24803421 -0.80008453 57 159 25
0.39476073 -0.51824725 0.59629667 -0.75598651 0.48529312 -0.43928924 31 189 71
0.54945338 -0.10442257 -0.53162968 -0.88712025 0.17638637 0.42650384 14 149 181
-0.05219126 0.91837180 -0.62143207 -0.42340350 -0.70913547 0.56378758 73 37 199
-0.26753831 0.55938506 0.96580088 -0.21250294 -0.40490341 -0.88932323 100 75 14
0.98885489 0.37314177 -0.77373660 -0.88475317 -0.14426918 0.44316852 14 109 184
-0.96861351 0.48855376 0.94270360 0.39753342 -0.33789575 -0.85310829 178 84 18
0.31197882 -0.88006651 0.83019173 -0.56226343 0.66195667 -0.49565440 55 211 64
0.81367874 -0.60448122 0.96085203 -0.76309168 0.41465017 -0.49573824 30 180 64
0.67321742 -0.26402819 -0.86125982 -0.76002967 0.24546568 0.60174870 30 158 204
0.92376971 0.67231202 -0.65041792 -0.84021431 -0.31700084 0.43994358 20 87 183
-0.50155818 0.20546532 0.31171691 -0.15663218 -0.36745605 -0.91675645 107 80 10
0.72711253 0.61541975 -0.21850538 -0.91474807 -0.33869568 0.22027536 10 84 155
-0.08869421 -0.30407321 -0.88547742 -0.39859709 0.36177060 0.84275883 76 173 234
0.71277654 0.19324934 0.33007085 -0.98084360 -0.05284213 -0.18749304 2 120 103
-0.93461168 0.17795050 0.44649720 0.65815711 -0.10853570 -0.74501622 211 113 32
-0.99584782 -0.64640653 0.48714042 0.39117509 0.81343037 -0.43048009 177 231 72
0.24197471 0.20428157 -0.03260732 -0.98510438 -0.08516511 0.14938638 1 116 146
-0.19543076 0.90245008 0.77093339 -0.40348300 -0.68648738 -0.60492700 76 39 50
0.30932415 0.85525489 -0.36932409 -0.75148791 -0.55841762 0.35133430 31 56 172
0.33243632 -0.94700289 0.11076355 -0.69329894 0.72049272 -0.01506321 39 219 125
-0.53885269 0.84599924 0.37206769 -0.23668675 -0.90152830 -0.36225143 97 12 81
-0.44795573 -0.56378973 0.44553781 -0.30327687 0.74782580 -0.59057575 88 222 52
0.22324026 0.22830427 -0.75963223 -0.74292809 -0.10675617 0.66080332 32 113 211
-0.86517060 -0.32226527 0.50043285 0.42840266 0.53267401 -0.72988337 182 195 34
-0.64732134 -0.50209332 0.13427007 0.09081160 0.92719108 -0.36341435 139 245 81
-0.79339790 0.70054150 -0.01643455 0.32611760 -0.94026500 -0.09771959 169 7 115
0.34102690 -0.34964287 -0.50398135 -0.80970985 0.43027097 0.39904490 24 182 178
0.93374944 0.99070334 -0.53847182 -0.83085024 -0.49009272 0.26362300 21 65 161
-0.17340577 0.00465429 0.82261837 -0.41694412 0.12845139 -0.89980990 74 143 12
-0.66360092 -0.56370580 0.13611054 0.10462684 0.96103948 -0.25584444 140 250 94
0.79389381 0.64050078 -0.06904423 -0.93520492 -0.35398608 0.00925503 8 82 128
-0.59941685 -0.13587689 0.94236219 -0.01537870 0.25503540 -0.96680945 125 160 4
0.40803933 0.14060009 0.99126136 -0.70458925 -0.01096909 -0.70953059 37 126 37
-0.78664744 -0.34713387 -0.86625290 0.12473531 0.49064457 0.86238569 143 190 237
0.48737061 -0.97488058 -0.74205041 -0.67608595 0.62134880 0.39602223 41 206 177
-0.23140466 0.17073858 -0.05573368 -0.99527776 -0.09634853 0.01179673 0 115 129
-0.96724498 -0.43850815 -0.09291053 0.39077216 0.91632760 0.08741235 177 244 138
0.66363919 0.47590864 -0.72532523 -0.88310552 -0.22925687 0.40934834 14 98 179
-0.79498041 -0.76637006 0.51141083 0.05137201 0.82530010 -0.56235278 134 232 55
-0.39845300 -0.28666270 -0.81388509 -0.37147319 0.44486246 0.81492645 80 184 231
0.01993048 -0.40782976 0.60267138 -0.64027584 0.47881305 -0.60065383 45 188 50
-0.95291424 0.46817768 -0.00541162 0.58956552 -0.77244580 -0.23609309 202 29 97
0.47261667 -0.11209202 -0.93759251 -0.79885381 0.16439025 0.57862633 25 148 201
-0.07379746 -0.23816633 0.27010298 -0.81333351 0.46479693 -0.34993204 23 186 82
-0.53442526 -0.09107304 -0.69839311 -0.33768120 0.32720914 0.88255626 84 169 240
0.33506739 -0.29468787 0.35702777 -0.87072480 0.33024842 -0.36438218 16 169 81
0.95376146 0.24452055 0.39084268 -0.96131027 -0.06735516 -0.26710653 4 118 93
0.36071670 0.98262548 -0.01475382 -0.80537146 -0.59088755 -0.04720972 24 52 121
-0.34451020 0.50670135 0.30632770 -0.71523350 -0.46872374 -0.51840055 36 67 61
-0.42949879 -0.43806350 0.76366353 -0.43121204 0.48561299 -0.76041847 72 189 30
0.10358763 0.89009511 0.25983346 -0.65648919 -0.67419720 -0.33834913 43 41 84
-0.40237629 0.79551697 0.01418221 0.01451028 -0.97860110 -0.20525448 129 2 101
-0.63167715 0.95809758 -0.15639639 0.35708687 -0.93324465 0.03928625 173 8 132
0.76669264 -0.74814010 0.60323560 -0.68668270 0.56035405 -0.46310940 39 198 68
-0.44361722 0.28155768 -0.94767296 0.02377000 -0.18317021 0.98279381 130 104 252
-0.46952605 0.14656031 -0.89839530 0.13073383 -0.02365379 0.99113530 144 124 253
0.19328487 0.64529884 0.06879759 -0.65675831 -0.71041429 -0.25294301 43 36 95
0.87547421 0.00298750 -0.46569622 -0.94988728 0.10280159 0.29520518 6 140 165
-0.20673704 0.17328358 -0.53279757 -0.31501958 -0.10907529 0.94279653 87 113 247
0.70522249 -0.62241113 -0.97719097 -0.71413410 0.45896715 0.52854675 36 186 194
-0.36551225 -0.05557609 -0.27103448 -0.26948106 0.64458990 0.71546060 93 209 218
-0.82825065 -0.63737416 0.67464149 0.36349061 0.66246128 -0.65499592 173 211 43
0.69562185 -0.74133182 -0.85963297 -0.68223619 0.54313791 0.48944348 40 196 189
-0.33346689 0.91047800 -0.51269269 -0.13236925 -0.85262674 0.50547606 110 18 191
-0.61998546 0.70998287 -0.19008052 0.42466384 -0.89399636 0.14293772 181 13 145
-0.66564858 -0.07560635 0.66421509 0.36718798 0.24200492 -0.89811283 174 158 12
0.30395508 0.99238718 -0.25191760 -0.47780591 -0.86776435 0.13669920 66 16 144
0.74244773 0.82130957 -0.09481287 -0.87549877 -0.48278388 -0.02053578 15 65 124
-0.36730349 -0.33557081 -0.76603580 0.08521729 0.58777136 0.80452645 138 202 230
0.23645639 -0.08902848 0.68883681 -0.59463006 0.23459315 -0.76901317 51 157 29
0.29376709 -0.49738324 0.82560468 -0.55612499 0.47631976 -0.68106139 56 188 40
0.68161011 -0.61324871 -0.61734140 -0.74611151 0.55324441 0.37045676 32 198 174
-0.89714289 0.40416467 0.08056331 0.87761027 -0.38581082 -0.28451768 239 78 91
0.07552505 0.27516687 0.80827296 -0.46907455 -0.12404226 -0.87440413 67 111 16
-0.86885166 -0.14726758 0.66757250 0.48440668 0.33883739 -0.80656022 189 170 24
0.76027334 0.20486200 -0.61964428 -0.91233230 -0.03670071 0.40780252 11 122 179
0.42644584 -0.04188490 -0.84338534 -0.72637200 0.16927764 0.66612971 34 149 212
-0.85729134 -0.10490859 0.83654940 0.42418212 0.25202334 -0.86980104 181 159 16
-0.12816262 0.64249170 -0.93251359 -0.25959599 -0.47634754 0.84006131 94 66 234
-0.34445167 0.68261635 -0.88757873 -0.06099302 -0.55043769 0.83264530 119 57 233
0.49942863 -0.61448205 -0.30025470 -0.76013172 0.62923056 0.16207622 30 207 148
0.30163562 -0.50838363 0.54254949 -0.63612390 0.55882823 -0.53203148 46 198 59
0.67322612 -0.18519020 -0.29729092 -0.94687229 0.27745867 0.16263346 6 162 148
0.51592708 -0.29446280 0.61147404 -0.76042736 0.34693575 -0.54898614 30 171 57
-0.92449117 -0.67141521 0.54194486 0.39155489 0.74605012 -0.53860384 177 222 58
-0.03082168 0.56391418 -0.30547285 -0.57412642 -0.69845915 0.42723963 54 38 181
-0.53584850 -0.02689242 0.76322961 0.22040844 0.21093978 -0.95232588 155 154 6
0.36072111 -0.95234096 0.27335072 -0.51923561 0.81866413 -0.24532311 61 231 96
0.76285326 0.26964629 -0.92154050 -0.78988308 -0.08119421 0.60785872 26 117 205
-0.49006343 -0.31200421 0.06355083 0.34077114 0.88611853 -0.31411609 170 240 87
-0.97016525 0.96770358 -0.24791896 0.65455377 -0.74365968 0.13612381 210 32 144
-0.90467417 -0.09431088 0.15516412 0.87668794 0.36030146 -0.31874928 239 173 86
-0.40453601 -0.68346882 0.29140997 0.12181677 0.90822518 -0.40035948 143 243 76
-0.37558711 0.32768822 -0.91356838 0.20204970 -0.18956991 0.96085340 153 103 250
-0.67756486 0.58225334 -0.64128697 0.51949090 -0.50198537 0.69147670 193 63 215
-0.27131724 -0.37763846 0.20235443 0.17474216 0.89416480 -0.41223118 149 241 74
-0.97589540 0.07066107 -0.50226116 0.88503850 0.09461179 0.45580214 240 139 185
-0.50980055 -0.77357388 -0.36280978 0.34376025 0.90226698 0.26027524 171 242 160
0.57112420 -0.08437586 0.42503738 -0.80451351 0.26337910 -0.53234351 24 161 59
